ply
format ascii 1.0
element vertex 876
property float x
property float y
property float z
property uchar red
property uchar green
property uchar blue
end_header
5.86352538998472 0.645385719835758 6.47192407 235 226 5
5.77380371000618 0.667114229872823 6.43823266 234 225 5
5.91589355000178 0.707885719835758 6.40515161 233 224 5
5.55163574000471 0.63098142016679 6.64086938 238 230 4
5.61511230000178 0.667480450123549 6.54492212 236 227 4
5.47631835998618 0.625976540148258 6.66308618 238 230 4
5.65576172000146 0.757690410129726 6.67053247 238 231 4
5.7442626899865 0.734619120135903 6.62072778 237 229 4
5.85351561999414 0.667602520436049 6.57385278 236 228 4
5.72351074000471 0.782348610460758 6.70080591 239 231 4
5.83764648000943 0.702880839817226 6.66528345 238 230 4
6.06530762001057 0.89941402990371 6.30029321 232 221 5
6.11901855000178 0.953002899885178 6.33313013 232 222 5
5.95666503999382 0.792968730442226 6.46008325 234 225 5
6.06213378999382 0.905639620497823 6.41247583 234 224 5
6.04614257998765 0.936767550185323 6.50329614 235 226 4
6.10681152000325 0.975952120497823 6.43029809 234 224 5
5.98474121000618 0.89941402990371 6.62329126 237 229 4
6.02734375 0.973266569897532 6.59045434 237 229 4
5.94213867001235 0.823120079934597 6.67663598 238 231 4
6.01147460998618 1.00439450051636 6.6839602 238 231 4
6.44287108999561 0.96984860021621 6.11303735 228 216 6
6.49548340000911 1.02478023990989 6.23840356 230 220 5
6.29833983999561 1.07238765992224 6.27929712 231 221 5
6.39831543000764 1.04479977022856 6.27734399 231 221 5
6.30664061999414 1.19885253999382 6.36804223 233 223 5
6.1856689399865 1.12707518972456 6.4450686 234 225 5
6.24499512001057 1.16479492001235 6.42749048 234 224 5
6.38293456999236 1.20886230003089 6.41894555 234 224 5
6.06896972999675 1.04760739021003 6.60412622 237 229 4
6.07568358999561 1.18176268972456 6.6157229 237 229 4
6.03894043000764 1.10424804035574 6.6716311 238 231 4
6.11267090000911 1.25720215030015 6.68029809 238 231 4
6.25756835998618 1.2813720703125 6.52551294 236 227 4
6.42041016000439 1.28198242001235 6.53942895 236 227 4
6.42749023000943 1.27075195033103 6.67346216 238 231 4
6.13525391000439 1.35461425036192 6.72192407 239 232 4
6.16418456999236 1.43835449032485 6.72888208 239 232 4
6.33178710998618 1.29248047061265 6.57678247 236 228 4
6.21655273000943 1.35034179035574 6.69885278 239 231 4
6.32568358999561 1.30249022971839 6.68920923 238 231 4
6.21789550999529 1.47863768972456 6.74963403 240 233 3
6.32067871000618 1.44055175036192 6.74267602 239 232 3
6.56579590000911 1.05090329051018 5.94335962 225 212 7
6.71435547000146 1.22546385973692 5.85876489 224 210 7
6.90881347999675 1.20385742001235 5.78894067 222 208 7
6.70898436999414 1.23339843004942 5.96130395 226 212 7
6.83520507998765 1.30615234002471 5.9191897 225 211 7
6.63427733999561 1.08081051055342 6.05065942 227 215 6
6.66308594000293 1.17089843004942 6.03991723 227 214 6
6.57226561999414 1.04052731022239 6.17785669 229 218 6
6.66918945001089 1.16186522971839 6.16149927 229 218 6
6.77893065998796 1.26025389973074 6.18444848 229 218 6
6.83752440998796 1.30285643972456 6.14611841 229 217 6
6.86511230000178 1.38818359002471 6.18103052 229 218 6
7.05981445001089 1.37341308034956 5.8056643 223 208 7
7.12219237998943 1.53002929035574 5.82580591 223 209 7
7.00292969000293 1.32556151971221 5.9541018 225 212 7
7.06140137001057 1.371337890625 5.91638208 225 211 7
7.07568358999561 1.47167968004942 5.97949243 226 213 6
6.93859862998943 1.4102783203125 6.10083032 228 216 6
7.06640625 1.48327635973692 6.08068872 228 216 6
6.97973632998765 1.35607909969985 6.26709009 231 220 5
7.02319335998618 1.42053222004324 6.20922876 230 219 6
7.06286621000618 1.48767090030015 6.19042993 230 218 6
7.08874512001057 1.57067871000618 6.00708032 226 214 6
7.25720215000911 1.70703125 5.79711938 223 208 7
7.2091064399865 1.65209961030632 5.94543481 225 212 7
7.23608398000943 1.73095703031868 5.99206567 226 213 6
7.29992675999529 1.87304687034339 6.02282739 227 214 6
7.41552733999561 1.85473632998765 5.92590356 225 212 7
7.14831543000764 1.61218260973692 6.0869143 228 216 6
7.15173340000911 1.71862793061882 6.10314966 228 216 6
7.13012695001089 1.63378905970603 6.17883325 229 218 6
7.1622314399865 1.70654297061265 6.22924829 230 219 5
7.15173340000911 1.82629393972456 6.23254419 230 219 5
7.23840331999236 1.83532715030015 6.05456567 227 215 6
7.42590331999236 1.843994140625 6.04772973 227 215 6
7.25073242001235 1.9259033203125 6.07934595 228 215 6
7.32507324000471 1.94958496000618 6.05017114 227 215 6
7.19152831999236 1.886962890625 6.22607446 230 219 6
7.23632811999414 1.9415283203125 6.17529321 229 218 6
6.63000487998943 1.08740234002471 6.39221216 233 223 5
6.60168456999236 1.13122558034956 6.47033716 235 225 5
6.48596190998796 1.17785643972456 6.40197778 233 224 5
6.80407715000911 1.22448730003089 6.33410669 232 222 5
6.68945311999414 1.13134764973074 6.42358423 234 224 5
6.74291992001235 1.1837158203125 6.4685061 235 225 5
6.89208983999561 1.22705078031868 6.45214868 234 225 5
6.93078612998943 1.29943847004324 6.50292993 235 226 4
6.56774902000325 1.1837158203125 6.54016138 236 227 4
6.51037597999675 1.27258300036192 6.69677759 239 231 4
6.61511230000178 1.24328613001853 6.67883325 238 231 4
6.79992675999529 1.2305908203125 6.56823755 236 228 4
6.87231445001089 1.25463867001235 6.54614282 236 227 4
6.50585936999414 1.40771484002471 6.75598169 240 233 3
6.64685058000032 1.324462890625 6.69421411 239 231 4
6.65722655999707 1.43395996000618 6.72876001 239 232 4
6.82421875 1.32141113001853 6.60095239 237 229 4
6.71252440998796 1.35522461030632 6.68762231 238 231 4
6.87463378999382 1.37536621000618 6.67028833 238 231 4
6.73718262001057 1.44226074032485 6.72216821 239 232 4
6.91833496000618 1.43701172061265 6.66564966 238 230 4
7.05139159999089 1.50195312034339 6.29199243 231 221 5
6.98596190998796 1.347900390625 6.51281763 235 227 4
7.07531737998943 1.47204590030015 6.44030786 234 225 5
6.97351074000471 1.36425780970603 6.6181643 237 229 4
7.06811523000943 1.48107909969985 6.55151391 236 228 4
7.01916503999382 1.42565918061882 6.68286157 238 231 4
7.07714844000293 1.46984863001853 6.68676782 238 231 4
7.13220215000911 1.63134764973074 6.41406274 234 224 5
7.19946288998472 1.66333007998765 6.51025415 235 226 4
7.30993652000325 1.75646972004324 6.48510766 235 226 4
7.33044433000032 1.84020996000618 6.52087427 235 227 4
7.10339355000178 1.55297851003706 6.60888696 237 229 4
7.16638183000032 1.70178222004324 6.58972192 237 229 4
7.13232422000146 1.63134764973074 6.65661645 238 230 4
7.16809081999236 1.69970703031868 6.71594263 239 232 4
7.28491210998618 1.78405760973692 6.5754397 236 228 4
7.203125 1.76831054035574 6.65332055 238 230 4
7.34301757998765 1.93090820033103 6.53417993 236 227 4
7.26940918000764 1.801025390625 6.67932153 238 231 4
7.32092284999089 1.95410155970603 6.75366235 240 233 3
5.58337402000325 0.745483370497823 6.84729028 241 235 3
5.47045898000943 0.641723610460758 6.90197778 242 237 3
5.52172851000796 0.707275370135903 6.95031763 243 238 3
5.57666016000439 0.762084940448403 6.95996118 243 238 3
5.88623047000146 0.771606409922242 6.84082055 241 235 3
5.80505371000618 0.774902329780161 6.9796145 244 238 3
5.63891601000796 0.797607400454581 7.01489282 244 239 2
5.91540527000325 0.878662080504 6.87622095 242 236 3
5.71826172000146 0.794189440086484 6.94372583 243 238 3
5.87561034999089 0.794189440086484 6.94775415 243 238 3
5.89855956999236 0.913452120497823 6.97045923 243 238 3
5.54382324000471 0.842773400247097 7.14294458 246 243 2
5.55773925999529 0.808715799823403 7.04443384 245 240 2
5.46215820001089 0.859252899885178 7.19519067 247 244 2
5.60864257998765 0.869506800547242 7.20861841 248 244 2
5.43688965000911 0.923339810222387 7.26379419 249 246 1
5.79455565998796 0.798095690086484 7.08813501 245 241 2
5.85888672000146 0.830200159922242 7.04272485 245 240 2
5.88513183000032 0.941406220197678 7.0733645 245 241 2
5.77661132998765 0.838012659922242 7.1815188 247 244 2
5.83459472999675 0.882324189879 7.25793481 249 246 1
5.87695311999414 0.958373989909887 7.18969751 247 244 2
5.64599608999561 0.959960900247097 7.30798364 249 247 1
5.44604492001235 0.900390590541065 7.42810083 252 250 1
5.49621581999236 0.959838829934597 7.43103052 252 250 1
5.76281737998943 0.868530239909887 7.28601098 249 246 1
5.72277831999236 0.957153290510178 7.32885766 250 247 1
5.85729980000178 0.999267550185323 7.28234888 249 246 1
5.6973876899865 1.01354977022856 7.40625024 251 249 1
5.98571777000325 1.05468747019768 6.88574243 242 236 3
6.1015625 1.27685547061265 6.78417993 240 233 3
5.96984862998943 1.0855712601915 6.98303247 244 239 3
6.00720215000911 1.16442871000618 6.99011255 244 239 2
6.05883788998472 1.21276855003089 6.96105981 243 238 3
6.15209960998618 1.45886230003089 6.83190942 241 235 3
6.12170409999089 1.37817382998765 6.94995141 243 238 3
6.14648436999414 1.46813965030015 6.9495852 243 238 3
6.26928710998618 1.52221679035574 6.77807641 240 233 3
6.34350585998618 1.53051757998765 6.79480005 240 234 3
6.0450439399865 1.23803711030632 7.06481958 245 241 2
5.95019530999707 1.12390135973692 7.20800805 248 244 2
6.03552246000618 1.25561522971839 7.17895532 247 244 2
6.07800293000764 1.31884764973074 7.12731958 246 242 2
6.14038085998618 1.47851562034339 7.0688479 245 241 2
6.06445311999414 1.34313965030015 7.23474145 248 245 2
6.10205077999854 1.41210937034339 7.17602563 247 244 2
6.31225585998618 1.57885742001235 6.86682153 242 236 3
6.25244141000439 1.67138672061265 6.88745141 242 236 3
6.20727538998472 1.62084961030632 6.92004419 243 237 3
6.36645507998765 1.6173095703125 6.90161157 242 237 3
6.24108887001057 1.68896484002471 6.99597192 244 239 2
6.30944824000471 1.703125 6.9294436 243 237 3
6.15747070001089 1.57739257998765 7.15429712 247 243 2
6.22570800999529 1.71276855003089 7.09863305 246 242 2
6.19116210998618 1.64648437034339 7.15246606 247 243 2
6.18286132998765 1.65966797061265 7.27221704 249 246 1
6.29406737998943 1.84118651971221 7.12695337 246 242 2
6.31701659999089 1.80761718004942 7.03686548 245 240 2
6.25085449000471 1.79138183034956 7.21789575 248 245 2
6.32092284999089 1.91369628999382 7.19653345 247 244 2
5.60766601000796 1.04785152990371 7.49084497 253 252 1
5.92102050999529 1.18054199032485 7.28149438 249 246 1
5.74536132998765 1.07360837049782 7.46569848 252 251 1
5.87695311999414 1.11608885973692 7.45202661 252 251 1
5.77197266000439 1.17614746000618 7.50268579 253 252 0
5.91455077999854 1.19323730003089 7.40612817 251 249 1
5.63940429998911 1.45141601003706 7.45666528 252 251 1
5.81494141000439 1.38757324032485 7.45764184 252 251 1
5.69775391000439 1.47644043061882 7.44702173 252 250 1
5.84497070001089 1.47119139973074 7.45385766 252 251 1
5.57592773000943 1.12036132998765 7.55065942 254 253 0
5.47814940998796 1.17895507998765 7.5643313 254 253 0
5.59020996000618 1.25085449032485 7.55883813 254 253 0
5.99768065998796 1.32507324032485 7.37329126 251 249 1
6.06042480000178 1.35021972004324 7.36438013 250 248 1
6.08898925999529 1.43481445033103 7.28527856 249 246 1
5.97705077999854 1.36291503999382 7.46911645 252 251 1
6.02111815998796 1.42028808034956 7.42016626 251 250 1
6.08349608999561 1.44433593004942 7.41308618 251 250 1
5.47668456999236 1.64941405970603 7.47949243 252 251 1
5.64196777000325 1.58874510973692 7.44848657 252 250 1
5.53784179998911 1.66223143972456 7.47607446 252 251 1
5.63720702999854 1.73400878999382 7.44726587 252 250 1
5.69274902000325 1.62573242001235 7.44482446 252 250 1
5.84265137001057 1.6094970703125 7.44677759 252 250 1
5.72619628999382 1.695556640625 7.45361352 252 251 1
5.84643554998911 1.73144530970603 7.45239282 252 251 1
5.43286132998765 1.88000488001853 7.4750979 252 251 1
5.58471679998911 1.836181640625 7.4549563 252 251 1
5.53417969000293 1.93481445033103 7.46496606 252 251 1
5.67834472999675 1.91101074032485 7.4775393 252 251 1
5.79064940998796 1.83081054035574 7.46350122 252 251 1
5.84472655999707 1.85754393972456 7.44982934 252 251 1
5.78161621000618 1.96679687034339 7.44348169 252 250 1
5.85302733999561 1.96179199032485 7.41772485 251 250 1
6.05712891000439 1.61865234002471 7.44677759 252 250 1
5.98730469000293 1.73596191033721 7.43664575 252 250 1
6.08264159999089 1.69982909969985 7.41528345 251 250 1
6.08850097999675 1.80969238001853 7.35730005 250 248 1
5.9375 1.93701172061265 7.3825686 251 249 1
6.06958007998765 1.95410155970603 7.33251977 250 248 1
6.01062012001057 1.81750488001853 7.40222192 251 249 1
6.24279784999089 1.80346679035574 7.34045434 250 248 1
6.30407715000911 1.9376220703125 7.30224634 249 247 1
6.62609862998943 1.47839355003089 6.8056643 240 234 3
6.77966308000032 1.50390625 6.78259302 240 233 3
6.62988280999707 1.59130859002471 6.93615747 243 237 3
6.48034668000764 1.68615722004324 6.95092798 243 238 3
6.56188965000911 1.68579101003706 6.95446802 243 238 3
6.78234862998943 1.61633300036192 6.84460473 241 235 3
6.82775878999382 1.55651855003089 6.78576684 240 234 3
6.70458983999561 1.60546875 6.92211938 243 237 3
6.70336913998472 1.72033691033721 6.9796145 244 238 3
6.82324219000293 1.67736816033721 6.90771509 242 237 3
6.54809570001089 1.81713867001235 7.05847192 245 241 2
6.60778808000032 1.84655760973692 7.08679223 245 241 2
6.55969237998943 1.90991211030632 7.13855005 246 243 2
6.45678710998618 1.94079590030015 7.16638208 247 243 2
6.57360840000911 1.99792480003089 7.16345239 247 243 2
6.79455565998796 1.82360840030015 7.04455591 245 240 2
6.86499023000943 1.8438720703125 7.03247095 245 240 2
6.79956054998911 1.92382812034339 7.06286645 245 241 2
6.86413574000471 1.95031738001853 7.0400393 245 240 2
7.01831054998911 1.65686034969985 6.86950708 242 236 3
7.06311034999089 1.60217284969985 6.80493188 240 234 3
7.15356445001089 1.71655272971839 6.82275415 241 234 3
6.97180175999529 1.71350097004324 6.93115259 243 237 3
7.14672851000796 1.83203125 6.95764184 243 238 3
7.14550780999707 1.93786621000618 7.02331567 244 240 2
7.21826172000146 1.85754393972456 6.8645022 242 236 3
7.26293945001089 1.91284179035574 6.80712915 241 234 3
7.20202637001057 1.87536621000618 6.97143579 243 238 3
7.24169922000146 1.93566893972456 6.90637231 242 237 3
6.94189452999854 1.96215820033103 7.03771997 245 240 2
7.08715820001089 2.00219726003706 7.07165552 245 241 2
7.51037597999675 1.86132812034339 5.99780298 226 213 6
7.56616210998618 1.90856933034956 6.01489282 226 214 6
7.66113280999707 2.02001953031868 5.95373559 225 212 7
7.53503418000764 1.93945312034339 6.09509302 228 216 6
7.60253905999707 1.97546385973692 6.07397485 228 215 6
3.62487793000764 2.08312988001853 7.21704126 248 245 2
3.52258300999529 2.21936034969985 7.20849634 248 244 2
3.57202148000943 2.16955566033721 7.23278833 248 245 2
3.76916503999382 2.13598632998765 7.2464602 248 245 1
3.92700195001089 2.0546875 7.26782251 249 246 1
3.76184081999236 2.21972655970603 7.27282739 249 246 1
3.90136719000293 2.26086425036192 7.26635766 249 246 1
3.52050780999707 2.30541992001235 7.22973657 248 245 2
3.65869141000439 2.33520507998765 7.2518313 248 245 1
3.47253418000764 2.41113280970603 7.23242212 248 245 2
3.56054686999414 2.48669433034956 7.20544458 248 244 2
3.70007324000471 2.40527343004942 7.22192407 248 245 2
3.84301757998765 2.35314941033721 7.22729516 248 245 2
3.74096679998911 2.4610595703125 7.20971704 248 244 2
3.88073730000178 2.42626953031868 7.16845727 247 243 2
4.08081054998911 2.33776855003089 7.18188501 247 244 2
3.96887206999236 2.45129393972456 7.17114282 247 243 2
4.06262206999236 2.44140625 7.17309595 247 243 2
4.23596190998796 2.28576659969985 7.20996118 248 244 2
4.19641112998943 2.47009276971221 7.22680688 248 245 2
3.46667480000178 2.92480457015336 7.00817895 244 239 2
3.59716797000146 2.64660632051528 7.11206079 246 242 2
3.55029297000146 2.76489245984703 7.06335473 245 241 2
3.59155273000943 2.76196277048439 7.07580591 245 241 2
3.71960449000471 2.70776354987174 7.12011743 246 242 2
3.69006347999675 2.54064941033721 7.16308618 247 243 2
3.81677246000618 2.5875242901966 7.16491723 247 243 2
3.765625 2.66723620984703 7.17846704 247 244 2
3.84509277000325 2.71215808019042 7.16626001 247 243 2
3.54663085998618 2.86730945017189 7.04370141 245 240 2
3.62805175999529 2.83288562018424 7.06652856 245 241 2
3.54333496000618 2.95727527048439 7.04187036 245 240 2
3.58190918000764 2.95922838989645 7.04614282 245 240 2
3.70300293000764 2.89843737985939 7.10571313 246 242 2
3.73608398000943 2.96423328015953 7.13855005 246 243 2
3.80944824000471 2.99841296020895 7.14050317 246 243 2
3.74572753999382 2.86743152048439 7.15124536 247 243 2
3.83398436999414 2.80163562018424 7.1704104 247 243 2
3.89880371000618 2.91833483986557 7.16699243 247 243 2
3.94226074000471 2.62853991985321 7.1917727 247 244 2
4.08374023000943 2.57519530970603 7.19421411 247 244 2
4.01574706999236 2.70764148049057 7.2004397 247 244 2
4.11096190998796 2.66418445017189 7.21862817 248 245 2
4.27355956999236 2.53869628999382 7.26232934 249 246 1
4.34082030999707 2.63476550020278 7.25012231 248 245 1
4.19250487998943 2.69189441017807 7.23010278 248 245 2
4.37915038998472 2.66101062018424 7.27014184 249 246 1
3.94921875 2.85375963989645 7.17309595 247 243 2
4.07434081999236 2.84594713989645 7.22192407 248 245 2
3.93383788998472 2.94824207015336 7.16455102 247 243 2
4.09362793000764 2.94873035047203 7.19934106 247 244 2
4.28369141000439 2.84838854987174 7.19946313 247 244 2
4.38635253999382 2.79211414046586 7.26696802 249 246 1
4.22167969000293 2.92504870984703 7.19946313 247 244 2
4.32800293000764 2.99023425020278 7.23230005 248 245 2
3.87158202999854 2.09851074032485 7.30212427 249 247 1
3.71777344000293 2.16760253999382 7.27587915 249 246 1
3.81091308000032 2.21215820033103 7.27734399 249 246 1
4.01550293000764 2.14038086030632 7.33410669 250 248 1
4.17504882998765 2.09106445033103 7.32470727 250 247 1
3.95178222999675 2.24316405970603 7.28332544 249 246 1
4.06042480000178 2.17126465030015 7.3377688 250 248 1
4.38623047000146 2.07128905970603 7.36523462 250 248 1
4.35949706999236 2.18200683034956 7.35424829 250 248 1
4.35681152000325 2.39379882998765 7.30639673 249 247 1
4.29882811999414 2.4337158203125 7.27600122 249 246 1
4.32861327999854 2.50488280970603 7.28454614 249 246 1
4.52368163998472 3.03198229987174 7.22985864 248 245 2
4.47106933000032 2.14831543061882 7.39538598 251 249 1
4.44250487998943 2.25512695033103 7.38769555 251 249 1
4.54394530999707 2.07470703031868 7.41479516 251 250 1
4.64733887001057 2.08850097004324 7.42980981 252 250 1
4.51574706999236 2.17492675036192 7.41894555 251 250 1
4.5567626899865 2.21374510973692 7.42358423 251 250 1
4.74487304998911 2.12243651971221 7.45202661 252 251 1
4.81762695001089 2.0704345703125 7.46411157 252 251 1
4.70605469000293 2.23803711030632 7.4315188 252 250 1
4.81030273000943 2.24426268972456 7.45703149 252 251 1
4.48889159999089 2.44396972004324 7.37512231 251 249 1
4.58447266000439 2.45214843004942 7.39660669 251 249 1
4.52600097999675 2.31799316033721 7.41772485 251 250 1
4.58239746000618 2.29919433034956 7.41894555 251 250 1
4.63269043000764 2.45654297061265 7.39880395 251 249 1
4.76806641000439 2.36047363001853 7.43103052 252 250 1
4.82116699000471 2.35852050036192 7.4426272 252 250 1
4.69775391000439 2.41320800036192 7.40197778 251 249 1
4.84082030999707 2.44238280970603 7.44067407 252 250 1
5.01159668000764 2.15063476003706 7.50415063 253 252 0
5.17077637001057 2.04882812034339 7.51806665 253 252 0
4.96179199000471 2.27307128999382 7.47143579 252 251 1
5.16845702999854 2.18542480003089 7.48547388 253 251 1
5.34216308000032 2.06823730003089 7.50476098 253 252 0
5.22851561999414 2.18164062034339 7.47521997 252 251 1
5.33679199000471 2.20227050036192 7.47827173 252 251 1
5.02856445001089 2.37438965030015 7.48156763 252 251 1
5.17553710998618 2.29492187034339 7.45434595 252 251 1
4.94714355000178 2.43847655970603 7.46960473 252 251 1
5.17456054998911 2.52844238001853 7.42199731 251 250 1
5.37341308000032 2.47045897971839 7.38574243 251 249 1
5.22583007998765 2.30969238001853 7.44433618 252 250 1
5.32116699000471 2.35009764973074 7.44763208 252 250 1
5.22412108999561 2.42895507998765 7.43005395 252 250 1
5.34265137001057 2.42077635973692 7.43969751 252 250 1
4.54418945001089 2.57714843004942 7.34973169 250 248 1
4.59338378999382 2.57348632998765 7.36438013 250 248 1
4.50903320001089 2.68627917021513 7.32397485 250 247 1
4.57934570001089 2.7515867901966 7.31091333 249 247 1
4.74353027000325 2.56372070033103 7.42248559 251 250 1
4.83178710998618 2.59240709990263 7.42443872 251 250 1
4.79943847999675 2.67199695017189 7.44665552 252 250 1
4.89453125 2.68164050020278 7.44335962 252 250 1
4.51782226000796 2.7983397198841 7.2978518 249 247 1
4.60217284999089 2.81603991985321 7.30078149 249 247 1
4.56713867001235 2.91259753052145 7.28771997 249 246 1
4.70617675999529 2.78552233986557 7.33618188 250 248 1
4.84509277000325 2.90173328015953 7.38989282 251 249 1
4.70031737998943 2.9156492901966 7.33715845 250 248 1
4.85375976000796 2.98474108986557 7.37780786 251 249 1
4.84948730000178 2.78478991985321 7.42260766 251 250 1
5.05041503999382 2.56323242001235 7.4853518 253 251 1
5.0880126899865 2.59582507051528 7.44348169 252 250 1
4.94055175999529 2.69030749984086 7.44567895 252 250 1
5.0841064399865 2.71044910047203 7.42541528 251 250 1
5.22851561999414 2.63659656047821 7.39196802 251 249 1
5.32104492001235 2.5665283203125 7.38073755 251 249 1
5.3203125 2.66870104987174 7.38195825 251 249 1
5.21020507998765 2.56628418061882 7.40490747 251 249 1
5.18383788998472 2.72094713989645 7.40222192 251 249 1
5.12304686999414 3.02014148049057 7.37609888 251 249 1
5.04040527000325 2.7984617901966 7.42834497 252 250 1
5.07592773000943 2.82812487985939 7.42053247 251 250 1
5.0333251899865 2.91113269049674 7.42895532 252 250 1
5.09008788998472 2.99035632051528 7.41271997 251 250 1
5.26049804998911 2.86840808019042 7.36279321 250 248 1
5.39282226000796 2.82751453015953 7.32153345 250 247 1
5.26159668000764 2.95617664046586 7.32080102 250 247 1
5.33435058000032 2.92297350987792 7.30395532 249 247 1
5.19055175999529 2.80603015050292 7.43249536 252 250 1
5.18505858999561 2.90978991985321 7.42211938 251 250 1
3.5020751899865 3.07165515050292 7.04394555 245 240 2
3.57788085998618 3.03918445017189 7.05957055 245 241 2
3.46398925999529 3.16003406047821 7.05297876 245 240 2
3.60693358999561 3.17626941017807 7.07971216 245 241 2
3.7265625 3.06066882051528 7.1235354 246 242 2
3.83740233999561 3.07617175020278 7.14794946 247 243 2
3.75256347999675 3.1616209698841 7.10632348 246 242 2
3.82543945001089 3.16345203015953 7.14636255 247 243 2
3.87194824000471 3.09680164046586 7.16271997 247 243 2
3.85913085998618 3.18225084990263 7.16406274 247 243 2
3.53112793000764 3.29113757051528 7.05969263 245 241 2
3.56518554998911 3.29919421020895 7.05224634 245 240 2
3.46105956999236 3.41003406047821 7.05688501 245 240 2
3.62536621000618 3.41394031047821 7.02514673 244 240 2
3.73352050999529 3.33215320017189 7.10363794 246 242 2
3.83154297000146 3.36608874984086 7.13525415 246 242 2
3.68969726000796 3.4313963605091 7.06201196 245 241 2
3.81896972999675 3.44982898049057 7.13330102 246 242 2
3.87695311999414 3.29748523049057 7.15734888 247 243 2
3.8887939399865 3.43041979987174 7.15417505 247 243 2
4.01904297000146 3.11999499984086 7.206177 248 244 2
4.10888672000146 3.05908191017807 7.21655298 248 245 2
3.9356689399865 3.16369616985321 7.18225122 247 244 2
4.11450195001089 3.19848620984703 7.20922876 248 244 2
4.24279784999089 3.1461180401966 7.1995852 247 244 2
4.34387206999236 3.07287584990263 7.2094729 248 244 2
4.19152831999236 3.1929930401966 7.20642114 248 244 2
4.34350585998618 3.20056140050292 7.19238305 247 244 2
4.01916503999382 3.29528796020895 7.19641138 247 244 2
4.07250976000796 3.3726805401966 7.19689966 247 244 2
4.05212402000325 3.45776354987174 7.19140649 247 244 2
4.09020996000618 3.44226062018424 7.18591333 247 244 2
4.26367186999414 3.33325183019042 7.1938479 247 244 2
4.42797851000796 3.29492175020278 7.20898462 248 244 2
4.1953125 3.44030749984086 7.17578149 247 244 2
4.37268065998796 3.4468992901966 7.23120141 248 245 2
3.52221679998911 3.53613269049674 7.03112817 244 240 2
3.61425780999707 3.56359850987792 7.05224634 245 240 2
3.45825195001089 3.65966785047203 7.04296899 245 240 2
3.57604980000178 3.67797838989645 7.0643313 245 241 2
3.76611327999854 3.59472644049674 7.11511255 246 242 2
3.80590820001089 3.5367430401966 7.12243677 246 242 2
3.69628905999707 3.66406237985939 7.09240747 246 241 2
3.84460449000471 3.6813963605091 7.13635278 246 243 2
3.92944335998618 3.5639647198841 7.15295434 247 243 2
3.92907715000911 3.71508777048439 7.16955591 247 243 2
3.48461913998472 3.8024901105091 7.06018091 245 241 2
3.56738280999707 3.81872546020895 7.1025393 246 242 2
3.45495605000178 3.95031725987792 7.09399438 246 241 2
3.58654784999089 3.93713366985321 7.09692407 246 241 2
3.73425293000764 3.82690417021513 7.12609888 246 242 2
3.81726074000471 3.83691394049674 7.13879419 246 243 2
3.69543456999236 3.91345203015953 7.1181643 246 242 2
3.88183594000293 3.80004870984703 7.15612817 247 243 2
3.73754882998765 3.99194324016571 7.16174341 247 243 2
3.83068847999675 3.91625963989645 7.15002466 247 243 2
3.98937987998943 3.58398425020278 7.17004419 247 243 2
4.0997314399865 3.53588854987174 7.18139673 247 244 2
3.97143554998911 3.66259753052145 7.17260766 247 243 2
4.12390137001057 3.68261707015336 7.16943384 247 243 2
4.20825195001089 3.62036120984703 7.1638186 247 243 2
4.39282226000796 3.58398425020278 7.25390649 248 246 1
4.18469237998943 3.69360338989645 7.17517114 247 243 2
4.32458496000618 3.75769031047821 7.2106936 248 244 2
4.03222655999707 3.78808582015336 7.1448977 247 243 2
3.97094726000796 3.7944334698841 7.15002466 247 243 2
4.07849121000618 3.83703600987792 7.16943384 247 243 2
3.96789550999529 3.9234617901966 7.16674829 247 243 2
4.05615233999561 3.91271959990263 7.17053247 247 243 2
4.29296875 3.83837878052145 7.1983645 247 244 2
4.34375 3.79186999984086 7.20813013 248 244 2
4.19812012001057 3.92651354987174 7.19824243 247 244 2
4.32543945001089 3.91320789046586 7.20959497 248 244 2
4.40319824000471 3.72863757051528 7.29382348 249 247 1
4.45764159999089 3.21325671020895 7.20703149 248 244 2
4.43627929998911 3.37622058019042 7.21557641 248 245 2
4.45397949000471 3.42810046020895 7.24633813 248 245 1
4.48278808000032 3.9195555401966 7.26696802 249 246 1
4.64758300999529 3.92919910047203 7.2666018 249 246 1
4.71228027000325 3.94006334990263 7.26477075 249 246 1
4.60595702999854 3.0406492901966 7.35351587 250 248 1
4.5177001899865 3.16113269049674 7.31420923 249 247 1
4.67626952999854 3.18164050020278 7.33093286 250 247 1
4.68945311999414 3.04956042021513 7.3566897 250 248 1
4.80895996000618 3.08068834990263 7.35852075 250 248 1
4.71191405999707 3.1968992901966 7.31726098 250 247 1
4.81481933000032 3.16271959990263 7.37255884 251 249 1
4.53784179998911 3.40942370984703 7.30261255 249 247 1
4.57043456999236 3.33203112985939 7.29504419 249 247 1
4.4825439399865 3.4506834698841 7.27490259 249 246 1
4.56201172000146 3.5288084698841 7.2987063 249 247 1
4.73474121000618 3.32897937018424 7.36865259 250 248 1
4.85925293000764 3.33447253052145 7.36315942 250 248 1
4.68310547000146 3.51696765050292 7.32605005 250 247 1
4.81665038998472 3.41503894049674 7.36108423 250 248 1
5.16088867001235 3.04089342989028 7.35803247 250 248 1
4.99353027000325 3.16760241985321 7.39440942 251 249 1
5.16125487998943 3.28393542021513 7.32812524 250 247 1
5.00354003999382 3.06188953015953 7.41467309 251 250 1
4.95336913998472 3.24133289046586 7.41088891 251 250 1
5.23901367001235 3.07897937018424 7.3233645 250 247 1
5.34375 3.07666003052145 7.29052759 249 246 1
5.20898436999414 3.20800769049674 7.32116723 250 247 1
5.31640625 3.19750963989645 7.3032229 249 247 1
4.97802733999561 3.35754382051528 7.37451196 251 249 1
5.15258788998472 3.37219225987792 7.3332522 250 248 1
4.98657226000796 3.41870104987174 7.36608911 250 248 1
5.16931152000325 3.41882312018424 7.32751489 250 247 1
4.94567871000618 3.33630358986557 7.39929223 251 249 1
5.21704101000796 3.34692370984703 7.31738305 250 247 1
5.31530762001057 3.34753406047821 7.30432153 249 247 1
5.19970702999854 3.44396959990263 7.32495141 250 247 1
5.36193847999675 3.42199695017189 7.29956079 249 247 1
4.43530273000943 3.65246570017189 7.29126001 249 246 1
4.57067871000618 3.59167467989028 7.30810571 249 247 1
4.45849608999561 3.68066394049674 7.2941897 249 247 1
4.56738280999707 3.67626941017807 7.29834009 249 247 1
4.72741699000471 3.58386217989028 7.33300805 250 248 1
4.83386230000178 3.6069334698841 7.33581567 250 248 1
4.68127440998796 3.67102039046586 7.30822778 249 247 1
4.84130858999561 3.66320789046586 7.33068872 250 247 1
4.52062987998943 3.84338366985321 7.27417016 249 246 1
4.56262206999236 3.82873523049057 7.27490259 249 246 1
4.52038574000471 3.97509753052145 7.28454614 249 246 1
4.58740233999561 3.91284167021513 7.27880884 249 246 1
4.74694824000471 3.8217772198841 7.3032229 249 247 1
4.82714844000293 3.81506334990263 7.3176272 250 247 1
4.75866699000471 3.98132312018424 7.2764895 249 246 1
4.81958007998765 3.94506824016571 7.28710962 249 246 1
5.00927733999561 3.59399402048439 7.34509302 250 248 1
5.16674804998911 3.55957019049674 7.3323977 250 248 1
4.95666503999382 3.67517078015953 7.32824731 250 247 1
5.06347655999707 3.70666491985321 7.32861352 250 247 1
5.25720215000911 3.56384265050292 7.31176782 249 247 1
5.42272949000471 3.54113757051528 7.32897973 250 247 1
5.23168945001089 3.66064441017807 7.32605005 250 247 1
5.31164550999529 3.68017566017807 7.33630395 250 248 1
5.04907226000796 3.8453367901966 7.3176272 250 247 1
5.12377929998911 3.80285632051528 7.32226587 250 247 1
4.94848632998765 3.92687975987792 7.29626489 249 247 1
5.05639648000943 3.9468992901966 7.29834009 249 247 1
5.29919433000032 3.81201160047203 7.35937524 250 248 1
5.35192871000618 3.80651842989028 7.37719751 251 249 1
5.18334960998618 3.94995104987174 7.35021997 250 248 1
5.39306641000439 3.92419421020895 7.32800317 250 247 1
7.38269043000764 2.18933105003089 6.17663598 229 218 6
7.29162597999675 2.18249510973692 6.39611841 233 224 5
7.33508300999529 2.23583984002471 6.35107446 232 222 5
7.28051757998765 2.19360351003706 6.50134302 235 226 4
7.31335449000471 2.25683593004942 6.44274927 234 225 5
7.40283202999854 2.35778808034956 6.29052759 231 221 5
7.39990233999561 2.45227050036192 6.3344729 232 222 5
7.34448242001235 2.320556640625 6.40625024 233 224 5
7.36779784999089 2.48132324032485 6.4138186 234 224 5
7.29467773000943 2.27514647971839 6.53930688 236 227 4
7.29064940998796 2.0860595703125 6.68212915 238 231 4
7.24621581999236 2.22778320033103 6.70105005 239 231 4
7.26098632998765 2.30786132998765 6.61804223 237 229 4
7.27563476000796 2.47546385973692 6.61071802 237 229 4
7.31530762001057 2.43872070033103 6.53955102 236 227 4
7.26928710998618 2.39196776971221 6.6737063 238 231 4
7.23864746000618 2.50976562034339 6.68566919 238 231 4
7.41564940998796 2.70056140050292 6.37182641 233 223 5
7.39526367001235 2.63183582015336 6.40710473 233 224 5
7.40112304998911 2.7126463605091 6.47167993 235 226 5
7.43041992001235 2.9351805401966 6.47985864 235 226 5
7.33959960998618 2.59448229987174 6.55395532 236 228 4
7.38635253999382 2.72497546020895 6.57287622 236 228 4
7.27490233999561 2.56518554035574 6.65869165 238 230 4
7.26049804998911 2.66406237985939 6.69763208 239 231 4
7.31042480000178 2.7047117901966 6.66198755 238 230 4
7.16247558000032 2.99035632051528 6.76171899 240 233 3
7.41638183000032 2.86523425020278 6.57897973 236 228 4
7.29235840000911 2.80371082015336 6.69921899 239 231 4
7.37365722999675 2.8179930401966 6.66284204 238 230 4
7.23400878999382 2.93200671020895 6.73181177 239 232 4
7.31652831999236 2.94470203015953 6.69897485 239 231 4
7.26171875 3.14172350987792 6.72082544 239 232 4
7.33618163998472 3.08544910047203 6.69226098 238 231 4
7.28344726000796 3.27380358986557 6.7004397 239 231 4
7.3614501899865 3.21789539046586 6.6761477 238 231 4
7.26171875 3.36157213989645 6.71423364 239 232 4
7.33752440998796 3.30871570017189 6.68762231 238 231 4
7.24792480000178 3.44116199016571 6.73608423 239 232 3
7.33093262001057 3.45556628052145 6.68627954 238 231 4
7.24353027000325 3.64794910047203 6.74047876 239 232 3
7.38220215000911 3.56127917021513 6.6691897 238 231 4
7.28625487998943 3.75353991985321 6.68103052 238 231 4
7.37573242001235 3.7006834698841 6.67028833 238 231 4
7.13159179998911 3.90698229987174 6.72985864 239 232 4
6.96777344000293 3.94201648049057 6.75451684 240 233 3
7.09631347999675 3.98791491985321 6.70642114 239 232 4
7.20800780999707 3.86303699016571 6.70605493 239 232 4
7.35412597999675 3.84399402048439 6.66870141 238 231 4
7.18579101000796 3.93798816017807 6.70056177 239 231 4
7.41113280999707 3.94091785047203 6.66894555 238 231 4
5.87963867001235 2.72155749984086 7.26171899 249 246 1
5.62365722999675 2.9079588605091 7.23193384 248 245 2
5.46728516000439 2.9704588605091 7.2731936 249 246 1
5.56994628999382 2.98449695017189 7.24230981 248 245 2
5.75720215000911 2.80346667021513 7.26757837 249 246 1
5.85070800999529 2.84460437018424 7.26611352 249 246 1
5.72827148000943 3.00598132051528 7.27172876 249 246 1
5.84570311999414 2.93286120984703 7.26074243 249 246 1
6.14697266000439 2.6343992901966 7.25048852 248 245 1
5.96777344000293 2.69018542021513 7.23913598 248 245 2
6.06542969000293 2.73645007051528 7.22485376 248 245 2
6.34863280999707 2.65039050020278 7.26049829 249 246 1
6.21508788998472 2.72253406047821 7.27099634 249 246 1
6.4083251899865 2.66711414046586 7.25024438 248 245 1
5.94677733999561 2.88500963989645 7.25769067 248 246 1
6.06567382998765 2.81933582015336 7.23986841 248 245 2
5.94372558000032 2.96813953015953 7.26696802 249 246 1
6.06213378999382 2.98266588989645 7.26184106 249 246 1
6.2578125 2.8374022198841 7.24755884 248 245 1
6.42248534999089 2.81689441017807 7.22290063 248 245 2
6.22644043000764 2.95153796020895 7.26220727 249 246 1
6.35290527000325 2.96948229987174 7.23364282 248 245 2
5.55651855000178 2.13439941033721 7.4528811 252 251 1
5.45214844000293 2.21362304035574 7.45910669 252 251 1
5.66857909999089 2.16247558034956 7.45471216 252 251 1
5.89855956999236 2.11181639973074 7.36706567 250 248 1
5.84558105000178 2.19604492001235 7.38855005 251 249 1
5.72900391000439 2.05761718004942 7.46032739 252 251 1
5.82055663998472 2.12817382998765 7.40014673 251 249 1
5.76464844000293 2.21972655970603 7.41113305 251 250 1
5.47888183000032 2.38635253999382 7.38952661 251 249 1
5.60351561999414 2.38122558034956 7.3846438 251 249 1
5.47558594000293 2.4962158203125 7.38659692 251 249 1
5.62927246000618 2.44091797061265 7.36645532 250 248 1
5.59082030999707 2.296875 7.40112329 251 249 1
5.78662108999561 2.28955078031868 7.39440942 251 249 1
5.82409668000764 2.33386230003089 7.35620141 250 248 1
5.75 2.44836425036192 7.32495141 250 247 1
5.83508300999529 2.41711425036192 7.31701684 250 247 1
6.03576659999089 2.11499022971839 7.33605981 250 248 1
6.08520507998765 2.04064941033721 7.299927 249 247 1
5.97558594000293 2.20568847004324 7.34741235 250 248 1
6.05883788998472 2.18566893972456 7.34729028 250 248 1
6.30371094000293 2.04443359002471 7.29821802 249 247 1
6.36914061999414 2.05932617001235 7.28002954 249 246 1
6.24682617001235 2.22485351003706 7.32397485 250 247 1
6.33874512001057 2.20117187034339 7.28674341 249 246 1
5.94799804998911 2.34802246000618 7.32946802 250 247 1
6.09069824000471 2.34033203031868 7.29223657 249 246 1
5.95983887001057 2.42858885973692 7.29809595 249 247 1
6.08447266000439 2.44445800036192 7.27722192 249 246 1
6.26538085998618 2.39379882998765 7.28771997 249 246 1
6.34729003999382 2.28869628999382 7.30480981 249 247 1
6.23364257998765 2.52587889973074 7.28210473 249 246 1
6.31176757998765 2.42797851003706 7.29321313 249 247 1
5.57824706999236 2.62097156047821 7.31298852 249 247 1
5.51989746000618 2.71374499984086 7.30664087 249 247 1
5.56127929998911 2.74023425020278 7.28979516 249 246 1
5.70581054998911 2.61157213989645 7.29846216 249 247 1
5.80639648000943 2.55541992001235 7.29467798 249 247 1
5.828125 2.70495592989028 7.28857446 249 246 1
5.50537108999561 2.82678209990263 7.28967309 249 246 1
5.58239746000618 2.79724108986557 7.28125024 249 246 1
5.44897460998618 2.91394031047821 7.2855227 249 246 1
5.83044433000032 2.78808582015336 7.29394555 249 247 1
5.69873047000146 2.9664305401966 7.27417016 249 246 1
6.30065918000764 2.62072741985321 7.29602075 249 247 1
6.51989746000618 2.06689453031868 7.20581079 248 244 2
6.61450195001089 2.14953613001853 7.16198755 247 243 2
6.50646972999675 2.18432617001235 7.23596216 248 245 2
6.63159179998911 2.22705078031868 7.20031763 247 244 2
6.87084960998618 2.04455566033721 7.06201196 245 241 2
6.75488280999707 2.17907715030015 7.14550805 247 243 2
6.82604980000178 2.19470215030015 7.1416018 246 243 2
6.68530273000943 2.16320800036192 7.15454126 247 243 2
6.87390137001057 2.23730468004942 7.15136743 247 243 2
6.63452148000943 2.31872558034956 7.21777368 248 245 2
6.49987793000764 2.47485351003706 7.25891138 249 246 1
6.62817382998765 2.41857909969985 7.22399927 248 245 2
6.73718262001057 2.38818359002471 7.20361352 248 244 2
6.80615233999561 2.31201172061265 7.17932153 247 244 2
6.74304199000471 2.47216797061265 7.22448755 248 245 2
6.93054199000471 2.45446776971221 7.21130395 248 244 2
7.11633300999529 2.26440429035574 6.95459009 243 238 3
7.23999023000943 2.13793945033103 6.86682153 242 236 3
7.2247314399865 2.24914550036192 6.79772973 240 234 3
7.12561034999089 2.52832030970603 6.85815454 241 235 3
7.12548827999854 2.34814453031868 6.91748071 242 237 3
7.11303710998618 2.45190429035574 6.92138696 243 237 3
7.18457030999707 2.2891845703125 6.87060571 242 236 3
7.1817626899865 2.47497558034956 6.80786157 241 234 3
7.00317382998765 2.09472655970603 7.08129907 245 241 2
7.08312987998943 2.10632324032485 7.07653833 245 241 2
6.93444824000471 2.17053222004324 7.11096216 246 242 2
7.08679199000471 2.19970703031868 7.07849145 245 241 2
7.04223632998765 2.43127441033721 7.05932641 245 241 2
6.96313476000796 2.32934570033103 7.16186548 247 243 2
7.02416992001235 2.4493408203125 7.16601587 247 243 2
6.52270507998765 2.62475574016571 7.25073266 248 245 1
6.60107422000146 2.53833007998765 7.24902368 248 245 1
6.44677733999561 2.7084959698841 7.25402856 248 246 1
6.60217284999089 2.70812975987792 7.26049829 249 246 1
6.74365233999561 2.55969238001853 7.22253442 248 245 2
6.84936523000943 2.53747558034956 7.22033716 248 245 2
6.77966308000032 2.69323717989028 7.19299341 247 244 2
6.90881347999675 2.73400866985321 7.19897485 247 244 2
6.53088378999382 2.86328112985939 7.23999048 248 245 2
6.6387939399865 2.83386217989028 7.23486352 248 245 2
6.44653320001089 2.94958483986557 7.2296145 248 245 2
6.64099121000618 2.91113269049674 7.26330591 249 246 1
6.90869141000439 2.97375475987792 7.1033938 246 242 2
6.72290038998472 2.83142078015953 7.26184106 249 246 1
6.90783690998796 2.89648425020278 7.17358423 247 243 2
6.87744141000439 3.00122058019042 7.19079614 247 244 2
7.05114746000618 2.7670897198841 6.85852075 241 235 3
7.11645507998765 2.70812975987792 6.82251001 241 234 3
7.05090331999236 2.5991209698841 7.01074243 244 239 2
7.09130858999561 2.56079101003706 6.9384768 243 237 3
7.05920409999089 2.67578112985939 6.94653345 243 238 3
7.06591797000146 2.83532703015953 6.81152368 241 234 3
6.99560547000146 2.97497546020895 6.86401391 242 236 3
7.05969237998943 2.91992175020278 6.82714868 241 235 3
7.03063965000911 2.78564441017807 6.95776391 243 238 3
6.96899413998472 2.92065417021513 6.9294436 243 237 3
7.02282715000911 2.70959459990263 7.0244143 244 240 2
7.00622558000032 2.55578613001853 7.16174341 247 243 2
6.97558594000293 2.67065417021513 7.16552759 247 243 2
6.52368163998472 2.35534668061882 7.28833032 249 246 1
6.45080565998796 2.44213867001235 7.29614282 249 247 1
6.83642577999854 2.88220203015953 7.28027368 249 246 1
6.71166992001235 2.92114245984703 7.29577661 249 247 1
6.86389159999089 3.0131834698841 7.30834985 249 247 1
5.66284179998911 3.09216296020895 7.26049829 249 246 1
5.60705565998796 3.1657713605091 7.27014184 249 246 1
5.75683594000293 3.1228026105091 7.26355005 249 246 1
5.86608887001057 3.06286608986557 7.23986841 248 245 2
5.74499512001057 3.21081531047821 7.25402856 248 246 1
5.85107422000146 3.22753894049674 7.23974634 248 245 2
5.79223632998765 3.29565417021513 7.25317407 248 245 1
5.85021972999675 3.2984617901966 7.26196313 249 246 1
6.08715820001089 3.10510241985321 7.26904321 249 246 1
5.96936034999089 3.16369616985321 7.23144555 248 245 2
6.30493163998472 3.09448229987174 7.24987817 248 245 1
6.40600585998618 3.06603991985321 7.24462915 248 245 1
6.38903808000032 3.97058092989028 7.10620141 246 242 2
6.41149902000325 3.89868152048439 7.23962427 248 245 2
6.26098632998765 4.00659167021513 7.25463891 248 246 1
6.36169433000032 3.98962390050292 7.20190454 248 244 2
5.52355956999236 3.12817370984703 7.27417016 249 246 1
5.47778320001089 3.19165027048439 7.30358911 249 247 1
5.55920409999089 3.22888171020895 7.29834009 249 247 1
5.69970702999854 3.26599108986557 7.29504419 249 247 1
5.44226074000471 3.38305652048439 7.29480005 249 247 1
5.56079101000796 3.29895007051528 7.31359888 249 247 1
5.44396972999675 3.44897449016571 7.31286645 249 247 1
5.59057617001235 3.46545398049057 7.34973169 250 248 1
5.73889159999089 3.35754382051528 7.27758813 249 246 1
5.88732909999089 3.32543933019042 7.2797854 249 246 1
5.73425293000764 3.42956531047821 7.29272485 249 247 1
5.8223876899865 3.4624022198841 7.30139184 249 247 1
6.08557128999382 3.17932116985321 7.28173852 249 246 1
6.40966797000146 3.13623035047203 7.2777102 249 246 1
6.18835449000471 3.21374499984086 7.3110354 249 247 1
6.33312987998943 3.21069324016571 7.27819848 249 246 1
6.02709960998618 3.31140124984086 7.30700708 249 247 1
6.11071777000325 3.29321277048439 7.299927 249 247 1
5.97644043000764 3.43054187018424 7.3134768 249 247 1
6.08337402000325 3.45373523049057 7.30407739 249 247 1
6.30200195001089 3.37695300020278 7.34008813 250 248 1
6.32324219000293 3.28967273049057 7.31628442 250 247 1
6.22155762001057 3.45141588989645 7.33032251 250 247 1
6.42138672000146 3.46777332015336 7.2921145 249 246 1
5.52770996000618 3.60253894049674 7.37036157 250 248 1
5.65844726000796 3.57788074016571 7.35266138 250 248 1
5.46667480000178 3.6733397198841 7.36792016 250 248 1
5.63122558000032 3.72656237985939 7.31457544 250 247 1
5.69665527000325 3.59765612985939 7.31188989 249 247 1
5.84008788998472 3.57006824016571 7.31335473 249 247 1
5.70642090000911 3.70666491985321 7.30993677 249 247 1
5.81921387001057 3.71069324016571 7.33532739 250 248 1
5.51440429998911 3.8491209698841 7.33715845 250 248 1
5.66528320001089 3.80517566017807 7.31738305 250 247 1
5.45361327999854 3.91296374984086 7.33935571 250 248 1
5.62268065998796 3.9545897198841 7.32116723 250 247 1
5.69042969000293 3.89025866985321 7.32653833 250 247 1
5.91235351000796 3.79504382051528 7.35754419 250 248 1
5.72644043000764 3.90966785047203 7.33032251 250 247 1
5.81152344000293 3.93945300020278 7.3702395 250 248 1
5.87902831999236 3.93334949016571 7.40527368 251 249 1
6.02893065998796 3.56909167021513 7.31652856 250 247 1
6.0723876899865 3.58947741985321 7.32580591 250 247 1
5.93298340000911 3.71850574016571 7.3323977 250 248 1
6.11120605000178 3.67565906047821 7.39965845 251 249 1
6.24938965000911 3.55395495984703 7.37573266 251 249 1
6.34216308000032 3.53576648049057 7.29040552 249 246 1
6.28186034999089 3.76745592989028 7.37316919 251 249 1
6.41149902000325 3.66430652048439 7.31970239 250 247 1
6.25158690998796 3.61352527048439 7.41442895 251 250 1
6.22607422000146 3.69580066017807 7.44421411 252 250 1
6.37145996000618 3.75585925020278 7.40319848 251 249 1
6.09350585998618 3.80676257051528 7.32629419 250 247 1
5.97741699000471 3.95715320017189 7.3792727 251 249 1
6.16601561999414 4.02221667021513 7.32104516 250 247 1
6.02331543000764 3.80957019049674 7.40625024 251 249 1
6.05798340000911 3.83654773049057 7.40771509 251 249 1
6.19995117001235 3.83264148049057 7.3636477 250 248 1
6.38793945001089 3.85900866985321 7.29516626 249 247 1
6.23718262001057 3.96984850987792 7.30871606 249 247 1
6.92810058000032 3.46154773049057 6.80578638 240 234 3
6.89770507998765 3.34802233986557 7.01733423 244 239 2
6.78027344000293 3.50524890050292 6.93432641 243 237 3
6.87060547000146 3.43701160047203 6.93994165 243 237 3
6.90283202999854 3.05456531047821 7.12084985 246 242 2
6.90185547000146 3.05541979987174 7.25671411 248 246 1
6.90808105000178 3.19787584990263 7.17980981 247 244 2
6.62402344000293 3.42968737985939 7.13598657 246 242 2
6.57226561999414 3.40624987985939 7.20397973 248 244 2
6.49987793000764 3.46667467989028 7.21948266 248 245 2
6.56384277000325 3.47875963989645 7.17358423 247 243 2
6.86035155999707 3.30749499984086 7.08996606 246 241 2
6.72985840000911 3.34338366985321 7.17236352 247 243 2
7.08825683000032 3.05090320017189 6.78613305 240 234 3
6.99670409999089 3.19897449016571 6.89685083 242 236 3
7.10705565998796 3.18579088989645 6.80017114 240 234 3
6.94750976000796 3.1656492901966 6.97094751 243 238 3
7.01232909999089 3.39953600987792 6.79858423 240 234 3
7.11914061999414 3.32104479987174 6.81982446 241 234 3
6.99780273000943 3.47851550020278 6.81726098 241 234 3
7.16540527000325 3.42883289046586 6.83801294 241 235 3
7.22766112998943 3.38537584990263 6.79467798 240 234 3
7.21655273000943 3.4625242901966 6.82043481 241 234 3
6.95300293000764 3.23376453015953 7.09643579 246 241 2
6.62292480000178 3.68603503052145 6.99450708 244 239 2
6.77612304998911 3.63732898049057 6.87890649 242 236 3
6.90466308000032 3.54528796020895 6.81140161 241 234 3
6.74267577999854 3.72375475987792 6.87304712 242 236 3
6.85375976000796 3.70898425020278 6.82275415 241 234 3
6.69921875 3.56652820017189 6.94030786 243 237 3
6.71191405999707 3.68347156047821 6.9113772 242 237 3
6.53015137001057 3.81359850987792 7.02111841 244 240 2
6.58276367001235 3.83532703015953 7.02026391 244 240 2
6.46276855000178 4.02966296020895 6.96838403 243 238 3
6.60974121000618 3.98925769049674 6.90893579 242 237 3
6.78845215000911 3.87426745984703 6.79138208 240 234 3
6.83325195001089 3.90478503052145 6.8056643 240 234 3
6.73876952999854 3.96398914046586 6.79357934 240 234 3
6.85668945001089 3.94934070017189 6.78369165 240 233 3
6.73400878999382 3.79040515050292 6.90319848 242 237 3
6.65173340000911 3.53869616985321 7.03491235 245 240 2
6.51098632998765 3.76843249984086 7.08215356 245 241 2
6.55944824000471 3.73278796020895 7.02587915 244 240 2
6.50305175999529 3.5915526105091 7.19458032 247 244 2
6.55883788998472 3.54724108986557 7.15002466 247 243 2
6.50842284999089 3.71057116985321 7.17321802 247 243 2
6.52099608999561 3.87853991985321 7.05456567 245 240 2
6.56469726000796 3.90539539046586 7.03649927 245 240 2
6.43884277000325 3.93579088989645 7.05249048 245 240 2
6.47705077999854 3.79345691017807 7.16430688 247 243 2
7.04614257998765 3.57824695017189 6.84240747 241 235 3
7.15795898000943 3.56982410047203 6.83581567 241 235 3
6.97802733999561 3.68884265050292 6.84143091 241 235 3
7.17846679998911 3.68872058019042 6.78002954 240 233 3
6.9552001899865 3.82849108986557 6.85400415 241 235 3
7.09460449000471 3.86694324016571 6.80358911 240 234 3
6.46997070001089 3.15051257051528 7.30029321 249 247 1
6.61682128999382 3.08544910047203 7.33654809 250 248 1
6.53063965000911 3.16516100987792 7.32824731 250 247 1
6.59423827999854 3.25048816017807 7.28283716 249 246 1
6.80529784999089 3.06481921020895 7.35473657 250 248 1
6.83703612998943 3.1110838605091 7.29321313 249 247 1
6.76513672000146 3.17272937018424 7.31738305 250 247 1
6.74548340000911 3.11743152048439 7.39880395 251 249 1
6.46203612998943 3.36682116985321 7.33581567 250 248 1
6.58666992001235 3.32604967989028 7.29943872 249 247 1
3.47619628999382 4.15307604987174 7.14440942 246 243 2
3.60424804998911 4.0367430401966 7.13208032 246 242 2
3.45251465000911 4.16015612985939 7.14318872 246 243 2
3.67797851000796 4.05334459990263 7.15246606 247 243 2
