ply
format ascii 1.0
element vertex 506
property float x
property float y
property float z
property uchar red
property uchar green
property uchar blue
end_header
8.574028 1.625172 21.251848 251 249 1
96.428649 1.625171 14.923628 212 193 10
8.454445 5.688101 21.084381 250 247 1
96.428656 5.688101 14.923628 212 193 10
1.021848 5.688101 7.759395 168 129 19
96.428656 5.688101 1.734012 131 75 28
1.038008 1.625172 7.782028 168 129 19
96.428649 1.625172 1.734009 131 75 28
88.591429 6.399113 1.001121 126 69 29
88.591429 0.914159 1.00112499999999 126 69 29
88.766776 0.914159 16.198362 220 204 8
88.766776 6.399113 16.198362 220 204 8
81.895789 6.399113 1.421806 129 73 28
81.895796 0.914159 1.42181 129 73 28
82.656745 0.914159 16.653177 222 208 7
82.656737 6.399113 16.713125 223 208 7
76.439658 6.399113 2.010063 132 78 27
76.439665 0.914159 2.010063 132 78 27
74.816176 0.914159 16.946399 224 211 7
74.816176 6.399113 17.306099 226 214 6
68.281996 6.399113 4.23409599999999 146 98 24
68.281996 0.914159 4.23409599999999 146 98 24
67.676947 0.914159 16.867527 224 210 7
67.676947 6.399113 16.92748 224 210 7
60.76538 6.399113 5.061676 151 105 23
60.76538 0.914159 5.061676 151 105 23
60.713057 0.914159 16.42955 221 206 8
60.713057 6.399113 16.42955 221 206 8
53.749171 6.357792 5.552688 154 109 22
53.749167 0.95548 5.552688 154 109 22
53.749171 0.95548 16.20187 220 204 8
53.749171 6.357792 16.20187 220 204 8
46.785277 6.076056 5.566894 154 109 22
46.785277 1.237217 5.56689799999999 154 109 22
46.785277 1.237217 15.745659 217 200 8
46.785277 6.076056 15.745659 217 200 8
39.631533 5.81856 5.199123 152 106 23
39.631533 1.494712 5.199123 152 106 23
39.631533 1.494712 14.989572 212 193 10
39.631533 5.81856 14.98957 212 193 10
31.65507 5.704803 5.28483199999999 152 107 23
31.65507 1.60847 5.28483199999999 152 107 23
31.65507 1.60847 13.817083 205 183 11
31.65507 5.704803 13.817083 205 183 11
25.38733 5.691478 5.21802899999999 152 106 23
25.38733 1.621795 5.218033 152 106 23
25.387332 1.621795 14.136226 207 186 11
25.387332 5.691478 14.136226 207 186 11
19.442879 5.691478 5.632835 155 110 22
19.442879 1.621795 5.632835 155 110 22
19.593833 1.621795 15.358904 214 196 9
19.593833 5.691478 15.358906 214 196 9
13.239791 5.779933 6.30207 159 116 21
13.239791 1.53334 6.30207 159 116 21
14.766357 1.53334 17.770893 229 218 6
14.766357 5.779933 17.770895 229 218 6
5.592382 6.310659 6.351326 159 116 21
5.594199 1.002614 6.35387799999999 159 116 21
10.606932 1.002614 20.549623 246 243 2
10.576027 6.310659 20.506344 246 242 2
7.029414 7.195333 10.233398 183 151 16
1.449945 6.399113 12.365177 196 170 13
1.522666 0.914159 12.467018 197 171 13
7.043958 0.117939 10.253769 183 151 16
13.740367 0.825575 9.45607399999999 178 144 17
19.49091 0.943514 8.699737 173 137 18
25.387332 0.943514 8.24609 171 133 19
31.655066 0.925748 8.15442599999999 170 132 19
39.631533 0.774071 7.837585 168 130 19
46.785277 0.430743 7.839355 168 130 19
53.749171 0.0550950000000001 7.83732999999999 168 130 19
60.72053 0 7.767181 168 129 19
67.763381 0 7.649437 167 128 20
74.897803 0 7.334095 165 125 20
81.646292 0 7.24768 165 124 20
88.591429 0 7.187103 164 124 20
96.517844 0.914159 7.186161 164 124 20
96.517844 6.399113 7.186165 164 124 20
88.591429 7.313273 7.187107 164 124 20
81.6463 7.313273 7.247204 165 124 20
74.897803 7.313273 7.331238 165 125 20
67.763373 7.313273 7.64896 167 128 20
60.72053 7.313273 7.767181 168 129 19
53.749171 7.258177 7.83732999999999 168 130 19
46.785277 6.88253 7.839355 168 130 19
39.631533 6.539202 7.837585 168 130 19
31.65507 6.387525 8.15442599999999 170 132 19
25.387332 6.369759 8.24609 171 133 19
19.49091 6.369759 8.699737 173 137 18
13.740367 6.487698 9.45607399999999 178 144 17
8.924057 7.195333 15.652429 216 199 9
4.664009 6.399113 17.48072 227 215 6
4.809448 0.914159 17.684398 229 217 6
8.953144 0.117939 15.693165 216 199 9
14.305787 0.825574 13.84544 205 183 11
19.545806 0.943514 12.357906 196 170 13
25.387332 0.943514 11.545036 191 163 14
31.65507 0.925748 11.409462 190 161 14
39.631533 0.774071 11.526783 191 162 14
46.785277 0.430743 11.62643 191 163 14
53.749171 0.0550950000000001 11.691604 192 164 14
60.713057 0 11.72413 192 164 14
67.67694 0 11.78776 192 165 14
74.665885 0 11.804329 193 165 14
81.755004 0 11.757137 192 164 14
88.616484 0 11.691103 192 164 14
96.517844 0.914159 11.569568 191 163 14
96.517836 6.399113 11.569572 191 163 14
88.616484 7.313273 11.691103 192 164 14
81.755004 7.313273 11.766367 192 164 14
74.665885 7.313273 11.859709 193 165 14
67.676947 7.313273 11.796989 193 165 14
60.713057 7.313273 11.72413 192 164 14
53.749171 7.258177 11.691604 192 164 14
46.785277 6.88253 11.62643 191 163 14
39.631533 6.539202 11.526783 191 162 14
31.65507 6.387525 11.409462 190 161 14
25.387332 6.369759 11.545036 191 163 14
19.545804 6.369759 12.357906 196 170 13
14.305786 6.487698 13.84544 205 183 11
94.93653 6.399113 15.481521 215 197 9
94.93653 7.313273 11.588695 191 163 14
94.93653 7.313273 7.184234 164 124 20
94.93653 6.399113 0.981040999999998 126 69 29
94.936537 0.914159 0.981040999999998 126 69 29
94.93653 0 7.184238 164 124 20
94.93653 0 11.588699 191 163 14
94.93653 0.914159 15.481519 215 197 9
19.57325 0.943514 14.091951 207 185 11
22.411673 0.943514 11.85919 193 165 14
22.411673 1.621795 14.621231 210 190 10
19.600697 3.656636 15.781227 217 200 8
22.411673 5.691478 14.621231 210 190 10
19.57325 6.369758 14.091953 207 185 11
22.411673 6.369758 11.85919 193 165 14
16.487809 5.691478 6.013424 157 113 22
16.487809 1.621795 6.013427 157 113 22
13.168278 3.656636 5.8708 156 112 22
14.571827 0.825575 16.091356 219 203 8
16.899501 0.943514 13.039791 200 176 12
17.091624 1.621795 16.442892 221 206 8
14.831198 3.656636 18.330742 233 223 5
17.091622 5.691478 16.442892 221 206 8
14.571828 6.487698 16.091356 219 203 8
16.899501 6.369758 13.039791 200 176 12
9.392147 6.045296 6.300514 159 116 21
9.392148 1.267977 6.300518 159 116 21
11.597675 0.471757 14.715452 210 191 10
12.479347 1.267977 19.240619 238 231 4
12.479348 6.045296 19.240619 238 231 4
11.597674 6.841516 14.715452 210 191 10
3.796157 7.313273 11.316379 190 161 15
6.18907 7.195333 7.942573 169 131 19
0.728432 6.399113 9.506969 178 144 17
0.764792 0.914159 9.557888 179 145 17
0.706659 3.656636 12.769094 199 173 13
6.196343 0.11794 7.952759 169 131 19
3.854333 0 11.39785 190 161 14
10.433839 0.471757 9.726955 180 146 17
13.454322 0.825575 7.595882 167 127 20
16.679932 0.943514 9.07979899999999 176 141 18
19.463465 0.943514 6.932743 163 122 21
22.411673 0.943514 8.41748399999999 172 135 18
25.387328 0.943514 6.523609 160 118 21
28.362982 0.943514 8.198581 170 133 19
31.65507 0.925748 6.510025 160 118 21
35.580016 0.872448 7.993057 169 131 19
39.631533 0.774071 6.28255799999999 159 116 21
43.303332 0.621071 7.811096 168 129 19
46.785281 0.430743 6.462967 160 117 21
50.267222 0.22038 7.848118 168 130 19
53.749163 0.0550950000000001 6.454845 160 117 21
57.231112 0 7.806919 168 129 19
60.742957 0 6.17427 158 115 22
64.224898 0 7.728389 168 129 19
68.022681 0 5.701366 155 111 22
71.355117 0 7.489193 166 127 20
75.668723 0 4.430485 147 99 24
78.289107 0 7.270542 165 125 20
81.771048 0 4.094345 145 96 24
85.086661 0 7.214622 164 124 20
88.591437 0 3.85395399999999 144 94 25
92.141883 0 7.180828 164 124 20
94.936522 0 3.842479 144 94 25
96.632498 3.656636 7.186298 164 124 20
96.517829 0.914159 3.850185 144 94 25
96.517829 3.656636 0.994384999999994 126 69 29
96.517829 6.399113 3.850185 144 94 25
88.591437 7.313273 3.85395399999999 144 94 25
92.141883 7.313273 7.180828 164 124 20
94.936522 7.313273 3.842479 144 94 25
81.771048 7.313273 4.094345 145 96 24
85.086661 7.313273 7.214622 164 124 20
75.668723 7.313273 4.430485 147 99 24
78.289099 7.313273 7.268638 165 125 20
68.022681 7.313273 5.701366 155 111 22
71.355117 7.313273 7.487289 166 126 20
60.742957 7.313273 6.17427 158 115 22
64.224898 7.313273 7.728389 168 129 19
53.749163 7.258177 6.454845 160 117 21
57.231112 7.313273 7.806919 168 129 19
46.785281 6.88253 6.462967 160 117 21
50.267222 7.092892 7.848118 168 130 19
39.631537 6.539202 6.28255799999999 159 116 21
43.303332 6.692201 7.811096 168 129 19
31.655066 6.387525 6.510025 160 118 21
35.580016 6.440824 7.993057 169 131 19
25.387328 6.369758 6.523613 160 118 21
28.362982 6.369758 8.198581 170 133 19
19.463465 6.369758 6.932747 163 122 21
22.411673 6.369758 8.41748399999999 172 135 18
13.454322 6.487698 7.595886 167 127 20
16.679932 6.369758 9.07979899999999 176 141 18
10.433839 6.841516 9.726955 180 146 17
7.959279 7.195333 12.862564 199 174 12
2.798098 6.399113 15.006746 212 193 9
2.907178 0.914159 15.159504 213 195 9
7.981095 0.11794 12.893118 199 175 12
14.02641 0.825575 11.586471 191 163 14
19.518357 0.943514 10.534313 185 154 16
25.387328 0.943514 9.931968 181 148 16
31.65507 0.925748 9.820442 180 147 17
39.631533 0.774071 9.613491 179 145 17
46.785281 0.430743 9.578998 179 145 17
53.749163 0.0550950000000001 9.578998 179 145 17
60.713053 0 9.578998 179 145 17
67.67694 0 9.58090199999999 179 145 17
74.64083 0 9.59041999999999 179 145 17
81.604712 0 9.58090199999999 179 145 17
88.591437 0 9.578998 179 145 17
94.936522 0 9.578998 179 145 17
96.517829 0.914159 9.578998 179 145 17
96.517829 6.399113 9.578995 179 145 17
88.591437 7.313273 9.578995 179 145 17
94.936522 7.313273 9.578998 179 145 17
81.604712 7.313273 9.578995 179 145 17
74.64083 7.313273 9.578995 179 145 17
67.67694 7.313273 9.578995 179 145 17
60.713053 7.313273 9.578995 179 145 17
53.749163 7.258177 9.578995 179 145 17
46.785281 6.88253 9.578995 179 145 17
39.631537 6.539202 9.613487 179 145 17
31.655066 6.387525 9.820442 180 147 17
25.387328 6.369758 9.931968 181 148 16
19.518357 6.369758 10.534313 185 154 16
14.026409 6.487698 11.586471 191 163 14
96.173834 6.399113 15.359371 214 196 9
96.173834 7.313273 11.571247 191 163 14
96.173834 7.313273 7.185745 164 124 20
96.173834 6.399113 0.991591999999997 126 69 29
96.173834 0.914159 0.991591999999997 126 69 29
96.173834 0 7.185737 164 124 20
96.173834 0 11.571247 191 163 14
96.173834 0.914159 15.359371 214 196 9
9.525447 0.914159 21.395468 252 250 1
10.826197 3.656636 21.220375 250 248 1
9.401824 6.399113 21.222341 250 248 1
8.840625 3.656636 21.727142 254 253 0
9.869142 7.195333 18.425358 233 224 5
6.433825 7.313273 16.658981 222 208 7
6.938802 6.399113 19.83616 242 236 3
2.487993 6.399113 6.797096 162 120 21
5.393486 3.656636 5.820919 156 112 22
2.495265 0.914159 6.807277 162 120 21
0.407382 3.656636 7.32259 165 125 20
6.550177 0 16.821924 223 209 7
9.905502 0.11794 18.47628 234 224 5
7.1206 0.914159 20.090755 244 238 3
96.517829 0.914159 13.698765 204 182 11
96.632498 3.656636 11.569011 191 163 14
96.517829 6.399113 13.698765 204 182 11
96.517829 3.656636 15.3482 214 196 9
4.151638 3.656636 17.863266 230 219 6
92.141883 6.399113 0.957217999999997 126 69 29
94.936522 3.656636 0.0272329999999954 120 60 30
92.141883 0.914159 0.957217999999997 126 69 29
88.591437 3.656636 0.0501779999999954 120 60 30
88.691626 0 14.18489 207 186 11
92.141883 0 11.636577 192 163 14
94.936522 0 13.775266 205 182 11
92.141883 0.914159 15.81669 217 200 8
88.791815 3.656636 16.869518 224 210 7
94.936522 3.656636 16.050272 219 203 8
92.141883 6.399113 15.81669 217 200 8
88.691626 7.313273 14.18489 207 186 11
94.936522 7.313273 13.775266 205 182 11
92.141883 7.313273 11.636577 192 163 14
85.086661 6.399113 1.19376699999999 127 71 28
85.086661 0.914159 1.19376699999999 127 71 28
81.937384 3.656636 0.53096 123 65 29
82.20587 0 14.43951 209 188 10
85.18685 0 11.728483 192 164 14
85.788016 0.914159 16.460022 221 206 8
82.807028 3.656636 17.42329 227 215 6
85.788016 6.399113 16.460022 221 206 8
82.20587 7.313273 14.485946 209 189 10
85.18685 7.313273 11.728483 192 164 14
79.2871 6.399113 1.571869 130 74 28
79.287108 0.914159 1.571869 130 74 28
76.696623 3.656636 1.203239 127 71 28
74.741019 0 14.580694 210 189 10
78.222953 0 11.785484 192 165 14
78.824111 0.914159 16.829326 223 209 7
74.841208 3.656636 17.928329 230 219 6
78.824118 6.399113 17.069126 225 212 7
74.741019 7.313273 14.859318 211 192 10
78.222953 7.313273 11.822403 193 165 14
72.532523 6.399113 3.102424 139 88 26
72.532523 0.914159 3.102424 139 88 26
68.368422 3.656636 3.744999 143 93 25
67.67694 0 14.561998 210 189 10
71.158881 0 11.804483 193 165 14
71.158881 0.914159 16.962312 224 211 7
67.67694 3.656636 17.668266 229 217 6
71.158881 6.399113 17.202112 226 213 6
67.67694 7.313273 14.608434 210 190 10
71.158881 7.313273 11.841402 193 165 14
64.404311 6.399113 4.79013 149 103 23
64.404311 0.914159 4.79013 149 103 23
60.77286 3.656636 4.690815 149 102 24
60.713053 0 14.316997 208 187 10
64.194991 0 11.755983 192 164 14
64.194991 0.914159 16.652513 222 208 7
60.713053 3.656636 17.133733 225 212 7
64.194991 6.399113 16.652513 222 208 7
60.713053 7.313273 14.316997 208 187 10
64.194991 7.313273 11.755983 192 164 14
57.231112 6.399113 5.339844 153 107 23
57.231112 0.914159 5.339844 153 107 23
53.749163 3.656636 5.25196399999999 152 107 23
53.749163 0.0550950000000001 14.186895 207 186 11
57.231112 0 11.707185 192 164 14
57.231112 0.914159 16.310936 220 205 8
53.749163 3.656636 16.873529 224 210 7
57.231112 6.399113 16.310936 220 205 8
53.749163 7.258177 14.186895 207 186 11
57.231112 7.313273 11.707185 192 164 14
50.267222 6.233828 5.628231 155 110 22
50.267222 1.079444 5.628231 155 110 22
46.785281 3.656636 5.268207 152 107 23
46.785281 0.430743 13.926201 206 184 11
50.267222 0.22038 11.663845 192 164 14
50.267222 1.079444 16.007559 218 202 8
46.785281 3.656636 16.35214 221 205 8
50.267222 6.233828 16.007559 218 202 8
46.785281 6.88253 13.926201 206 184 11
50.267222 7.092892 11.663845 192 164 14
43.303332 5.93331 5.369079 153 108 23
43.303332 1.379963 5.369079 153 108 23
39.631537 3.656636 4.837974 150 103 23
39.631537 0.774071 13.493969 203 180 12
43.303332 0.621071 11.581882 191 163 14
43.303332 1.379963 15.433822 215 197 9
39.631537 3.656636 15.488102 215 198 9
43.303332 5.93331 15.433822 215 197 9
39.631537 6.539202 13.493969 203 180 12
43.303332 6.692201 11.581882 191 163 14
35.580016 5.744778 5.221355 152 106 23
35.580016 1.568495 5.221355 152 106 23
31.655066 3.656636 4.876434 150 103 23
31.655066 0.925748 12.822874 199 174 12
35.580016 0.872448 11.457706 190 162 14
35.580016 1.568495 14.330419 208 187 10
31.655066 3.656636 14.148483 207 186 11
35.580016 5.744778 14.330419 208 187 10
31.655066 6.387525 12.822876 199 174 12
35.580016 6.440824 11.457706 190 162 14
28.362982 5.691478 5.238586 152 107 23
28.362982 1.621795 5.23858199999999 152 107 23
25.387328 3.656636 4.782837 149 102 23
25.387328 0.943514 13.049082 200 176 12
28.362982 0.943514 11.416851 190 161 14
28.362982 1.621795 13.810262 205 183 11
25.387328 3.656636 14.498607 209 189 10
28.362982 5.691478 13.810262 205 183 11
25.387328 6.369758 13.049082 200 176 12
28.362982 6.369758 11.416851 190 161 14
22.411673 5.691478 5.358577 153 108 23
22.411673 1.621795 5.35858099999999 153 108 23
19.436021 3.656636 5.199543 152 106 23
9.901578 3.656636 21.956703 255 255 0
8.077088 7.313272 19.263672 238 231 4
2.326689 3.656636 6.156646 158 115 22
8.222527 1.00000000013978E-06 19.46735 240 233 3
96.632498 3.656636 13.696529 204 182 11
6.656333 3.656636 20.162773 244 239 2
92.14189 3.656636 0 120 60 30
92.14189 1.00000000013978E-06 13.966793 206 184 11
92.14189 3.656636 16.433325 221 206 8
92.14189 7.313272 13.966793 206 184 11
85.086661 3.656636 0.270346999999994 122 62 30
85.487433 1.00000000013978E-06 14.334411 208 187 10
85.888205 3.656636 17.16856 226 212 7
85.487433 7.313272 14.334411 208 187 10
79.453437 3.656636 0.702469000000001 124 66 29
78.523543 1.00000000013978E-06 14.524345 209 189 10
78.924315 3.656636 17.726562 229 217 6
78.523543 7.313272 14.710094 210 191 10
72.728766 3.656636 2.45167499999999 135 82 27
71.158881 1.00000000013978E-06 14.600336 210 190 10
71.158881 3.656636 17.878547 230 219 6
71.158881 7.313272 14.786087 211 191 10
64.43421 3.656636 4.380478 147 99 24
64.194998 1.00000000013978E-06 14.444406 209 188 10
64.194998 3.656636 17.388546 227 214 6
64.194998 7.313272 14.444404 209 188 10
57.231108 3.656636 5.00872 151 104 23
57.231108 1.00000000013978E-06 14.249218 208 187 11
57.231108 3.656636 16.998173 225 211 7
57.231108 7.313272 14.249218 208 187 11
50.267226 3.656636 5.338302 153 107 23
50.267222 0.22038 14.075861 207 185 11
50.267222 3.656636 16.651458 222 208 7
50.267222 7.092892 14.075863 207 185 11
43.303336 3.656636 5.042129 151 105 23
43.30334 0.621071 13.74801 205 182 11
43.30334 3.656636 15.99576 218 202 8
43.30334 6.692201 13.748012 205 182 11
35.580016 3.656636 4.833641 150 103 23
35.580016 0.872448 13.116764 201 176 12
35.580016 3.656636 14.734974 211 191 10
35.580016 6.440825 13.116764 201 176 12
28.362982 3.656636 4.813667 150 103 23
28.362984 0.943514 12.818794 199 174 12
28.362984 3.656636 14.140751 207 186 11
28.362984 6.369759 12.818794 199 174 12
22.411673 3.656636 4.92145499999999 150 104 23
22.411673 0.943514 13.458286 203 180 12
22.411673 3.656636 15.008875 212 193 9
22.411673 6.369759 13.458286 203 180 12
16.460364 3.656636 5.58712 154 110 22
17.009286 0.943514 14.995613 212 193 10
17.119071 3.656636 16.925316 224 210 7
17.009286 6.369759 14.995613 212 193 10
9.243334 3.656636 5.837185 156 112 22
12.112918 0.471757 17.301262 226 214 6
12.601493 3.656636 19.887073 242 237 3
12.112918 6.841515 17.301262 226 214 6
2.971903 7.313272 8.718448 174 137 18
0 3.656636 9.796966 180 147 17
3.000992 1.00000000013978E-06 8.759186 174 138 18
9.838587 0.471757 7.69051 167 128 19
16.570147 0.943514 7.292343 165 125 20
22.411673 0.943514 6.669956 161 119 21
28.362982 0.943514 6.513344 160 118 21
35.580016 0.872448 6.38451 159 117 21
43.303336 0.621071 6.34993 159 116 21
50.267226 0.22038 6.49802 160 118 21
57.231108 1.00000000013978E-06 6.333225 159 116 21
64.314604 1.00000000013978E-06 6.019104 157 113 22
71.943824 1.00000000013978E-06 5.054703 151 105 23
78.788108 1.00000000013978E-06 4.180099 146 97 24
85.086661 1.00000000013978E-06 3.964042 144 95 25
92.14189 1.00000000013978E-06 3.828865 144 94 25
96.632498 3.656636 3.85074599999999 144 94 25
92.14189 7.313272 3.828865 144 94 25
85.086661 7.313272 3.964042 144 95 25
78.788108 7.313272 4.180099 146 97 24
71.943824 7.313272 5.054703 151 105 23
64.314604 7.313272 6.019104 157 113 22
57.231108 7.313272 6.333225 159 116 21
50.267222 7.092892 6.49802 160 118 21
43.30334 6.692201 6.34993 159 116 21
35.580016 6.440825 6.384514 159 117 21
28.362984 6.369759 6.513347 160 118 21
22.411673 6.369759 6.669956 161 119 21
16.570147 6.369759 7.292343 165 125 20
9.838587 6.841515 7.69051 167 128 19
4.97849 7.313272 13.986551 206 184 11
2.129476 3.656636 15.42828 215 197 9
5.065754 1.00000000013978E-06 14.108757 207 185 11
11.029092 0.471757 12.129642 195 168 13
16.789717 0.943514 11.031734 188 158 15
22.411673 0.943514 10.163078 182 150 16
28.362982 0.943514 9.854934 181 148 17
35.580016 0.872448 9.716964 180 146 17
43.303336 0.621071 9.578998 179 145 17
50.267226 0.22038 9.578998 179 145 17
57.231108 1.00000000013978E-06 9.578998 179 145 17
64.194998 1.00000000013978E-06 9.578998 179 145 17
71.158881 1.00000000013978E-06 9.586612 179 145 17
78.122771 1.00000000013978E-06 9.586612 179 145 17
85.086661 1.00000000013978E-06 9.578998 179 145 17
92.14189 1.00000000013978E-06 9.578998 179 145 17
96.632498 3.656636 9.578998 179 145 17
92.14189 7.313272 9.578998 179 145 17
85.086661 7.313272 9.578998 179 145 17
78.122771 7.313272 9.578998 179 145 17
71.158881 7.313272 9.578998 179 145 17
64.194998 7.313272 9.578998 179 145 17
57.231108 7.313272 9.578998 179 145 17
50.267222 7.092892 9.578998 179 145 17
43.30334 6.692201 9.578998 179 145 17
35.580016 6.440825 9.71696799999999 180 146 17
28.362984 6.369759 9.854934 181 148 17
22.411673 6.369759 10.163078 182 150 16
16.789717 6.369759 11.031734 188 158 15
11.029092 6.841515 12.12964 195 168 13
96.173834 7.313272 13.705467 204 182 11
96.173834 7.313272 9.578998 179 145 17
96.173834 7.313272 3.84851 144 94 25
96.173834 3.656636 0.039283999999995 120 60 30
96.173834 1.00000000013978E-06 3.84851 144 94 25
96.173834 1.00000000013978E-06 9.578998 179 145 17
96.173834 1.00000000013978E-06 13.705467 204 182 11
96.173834 3.656636 15.910673 218 201 8